# .PCD v0.7 - Point Cloud Data file format
VERSION 0.7
FIELDS x y z normal_x normal_y normal_z curvature
SIZE 4 4 4 4 4 4 4
TYPE F F F F F F F
COUNT 1 1 1 1 1 1 1
WIDTH 247
HEIGHT 1
VIEWPOINT 0 0 0 1 0 0 0
POINTS 247
DATA ascii
-0.0057779099 -0.018104792 -0.00088354578 0.20580404 -0.0764919 -0.97559911 0
-0.0064468952 0.01648994 -0.00092850078 -0.0456517 0.033071879 -0.99840975 0
-0.021840395 -0.42361996 0.086617164 -0.38520879 -0.44879645 -0.80634731 0
-0.034553904 -0.34411114 0.067995399 -0.61610383 -0.21297495 -0.75832564 0
-0.046004739 -0.24891852 0.058120091 -0.73707604 -0.12267032 -0.66458333 0
-0.053080652 -0.15060838 0.05341056 -0.80230856 -0.062779352 -0.59359896 0
-0.050999776 -0.048099317 0.04568246 -0.77265704 -0.017406309 -0.63458502 0
0.00046065272 -0.0095930109 0.0029062808 0.74925351 -0.07409884 -0.65812492 0
-0.050867271 0.050132718 0.045670405 -0.76644427 0.020954981 -0.64196891 0
-0.050862312 0.1487056 0.050101578 -0.77712864 0.064029172 -0.62607616 0
-0.046711318 0.24715443 0.058215804 -0.75799698 0.12110405 -0.64091682 0
-0.034863058 0.34751713 0.069257945 -0.62318957 0.21636622 -0.75154537 0
-0.021416273 0.42233622 0.085437082 -0.38567919 0.46150526 -0.79891449 0
-0.046081327 -0.53215373 0.17609507 -0.63887006 -0.39233035 -0.66175681 0
-0.10239718 -0.41539145 0.19295822 -0.87463504 -0.21784268 -0.43307975 0
-0.061146647 -0.45021999 0.146194 -0.7394889 -0.3535088 -0.57287675 0
-0.10669933 -0.34395692 0.18259118 -0.91846919 -0.08278472 -0.38673133 0
-0.081511684 -0.35160404 0.13314594 -0.86956412 -0.12220794 -0.47845957 0
-0.11107285 -0.24917805 0.17466319 -0.92010015 -0.068971626 -0.38556278 0
-0.087226115 -0.25491944 0.12492247 -0.88519746 -0.076412916 -0.45889699 0
-0.11412007 -0.14959218 0.16685066 -0.92328799 -0.049924359 -0.38085017 0
-0.090612233 -0.15676455 0.11694481 -0.88509756 -0.057054229 -0.46189514 0
-0.1161733 -0.048283372 0.16246398 -0.92418039 -0.018919988 -0.38148734 0
-0.093543127 -0.051822294 0.11311618 -0.88457614 -0.02155317 -0.46589759 0
-0.11658185 0.049300265 0.16357692 -0.9253965 0.019295547 -0.3785089 0
-0.093482129 0.051286399 0.11294627 -0.88441932 0.020963149 -0.46622199 0
-0.11369409 0.14721464 0.16549826 -0.92222661 0.049500059 -0.38346824 0
-0.090859935 0.15194668 0.11680684 -0.88443154 0.056319308 -0.46325895 0
-0.11161945 0.24725835 0.17569631 -0.92166203 0.06824825 -0.38194391 0
-0.086557977 0.2530176 0.12326922 -0.88448817 0.076130435 -0.46030948 0
-0.10687745 0.34619445 0.18352062 -0.91875881 0.083561361 -0.38587546 0
-0.08120583 0.3512629 0.13265958 -0.86870682 0.12420576 -0.47950113 0
-0.10335636 0.41312411 0.19376291 -0.877168 0.21580504 -0.42895743 0
-0.060622782 0.45136884 0.14632504 -0.73631096 0.35772458 -0.57435119 0
-0.044390455 0.53094864 0.17386256 -0.62612325 0.39760119 -0.67073321 0
-0.066786312 -0.63462836 0.26292574 -0.84140664 -0.2936058 -0.45368537 0
-0.10905797 -0.52107525 0.27807492 -0.86269253 -0.35401207 -0.36116064 0
-0.078207135 -0.55622643 0.24223734 -0.85535705 -0.29695055 -0.42448172 0
-0.12023058 -0.44516534 0.25500533 -0.92569351 -0.17959122 -0.33292404 0
-0.094470061 -0.48105082 0.21290885 -0.84554362 -0.31114608 -0.433871 0
-0.12934454 -0.35156605 0.24841626 -0.95159274 -0.074421912 -0.29821554 0
-0.13668981 -0.25222254 0.2490377 -0.95587021 -0.062268984 -0.28711447 0
-0.14253649 -0.15101439 0.24908984 -0.95735544 -0.046633389 -0.2851243 0
-0.1462381 -0.049458928 0.24979448 -0.95897412 -0.017342208 -0.28296289 0
-0.14630534 0.048847683 0.24989605 -0.95916796 0.016951554 -0.28232899 0
-0.14254092 0.14932202 0.24878657 -0.95750511 0.045919482 -0.28473741 0
-0.13721697 0.249681 0.25026014 -0.95599264 0.061991379 -0.28676656 0
-0.13023168 0.34894973 0.25061634 -0.95246309 0.074172065 -0.2954869 0
-0.11949095 0.44749674 0.25429943 -0.92460817 0.18344533 -0.33383739 0
-0.094674133 0.48077017 0.21311285 -0.85041636 0.3011376 -0.43140256 0
-0.10899658 0.52222204 0.27923962 -0.85601765 0.36541355 -0.36565942 0
-0.078468896 0.55360377 0.24075849 -0.8455506 0.31123024 -0.43379703 0
-0.066973552 0.63624394 0.26428047 -0.84016317 0.29903883 -0.45243952 0
-0.083200656 -0.71377701 0.36560383 -0.87042797 -0.38417867 -0.30783439 0
-0.10612143 -0.62432468 0.37877753 -0.93445218 -0.24602909 -0.25742722 0
-0.087495044 -0.65933186 0.33978438 -0.9390142 -0.20840234 -0.27353394 0
-0.12576477 -0.54632598 0.35340202 -0.90372008 -0.31122509 -0.29398799 0
-0.096353352 -0.58627588 0.31244999 -0.91112167 -0.27092418 -0.31057593 0
-0.14769931 -0.44921991 0.34958547 -0.96100569 -0.12793882 -0.24515244 0
-0.15640104 -0.34800121 0.35003456 -0.97284842 -0.06691058 -0.22156005 0
-0.16281813 -0.25033328 0.3500452 -0.97405303 -0.060577843 -0.21806203 0
-0.16833529 -0.1500693 0.3495217 -0.97493774 -0.046985496 -0.21745943 0
-0.17218499 -0.052366406 0.35168964 -0.97641599 -0.017647253 -0.21517564 0
-0.17187105 0.051422417 0.35023594 -0.97618723 0.017337248 -0.21623561 0
-0.16864644 0.15132822 0.3512288 -0.97502989 0.047063809 -0.21702892 0
-0.16248143 0.25037634 0.34848598 -0.9737801 0.060620587 -0.21926585 0
-0.15584143 0.35099095 0.34843951 -0.97254384 0.067191698 -0.22280899 0
-0.14735597 0.45081592 0.3493284 -0.96008247 0.13296391 -0.24609418 0
-0.12488412 0.5482626 0.35314587 -0.89907324 0.32227948 -0.29631618 0
-0.096568182 0.58611977 0.31303927 -0.91384244 0.26705503 -0.30589816 0
-0.10569838 0.62547594 0.37837827 -0.93605691 0.24099626 -0.25635567 0
-0.088421427 0.6592595 0.34296837 -0.94375086 0.1966545 -0.26582199 0
-0.082467623 0.71500027 0.36449024 -0.82701886 0.45540708 -0.3296122 0
-0.10580242 -0.7261796 0.47255945 -0.96174729 -0.20178741 -0.18526739 0
-0.094890781 -0.73303109 0.43048945 -0.83381402 -0.48361784 -0.2662102 0
-0.11782847 -0.64959836 0.44947198 -0.94136572 -0.25706813 -0.2185097 0
-0.09803424 -0.6931234 0.40627658 -0.95520866 -0.18614286 -0.2300591 0
-0.15220323 -0.54992455 0.44931179 -0.92971635 -0.28156587 -0.23737752 0
-0.17000701 -0.45017865 0.44969881 -0.97780806 -0.085750394 -0.19114962 0
-0.17730005 -0.34907067 0.45140031 -0.98038632 -0.064270049 -0.18631189 0
-0.18304899 -0.24990502 0.44881663 -0.98096758 -0.058267683 -0.18522291 0
-0.18850406 -0.14846726 0.44898236 -0.98220009 -0.044369634 -0.18252237 0
-0.20060627 -0.031152014 0.49781293 -0.98493409 -0.0088617746 -0.17270266 0
-0.19128762 -0.052110881 0.44741103 -0.98355287 -0.016255161 -0.17988741 0
-0.20038585 0.037358481 0.49680734 -0.98491967 0.0097699314 -0.17273672 0
-0.19106072 0.052731384 0.44628453 -0.98347753 0.01615799 -0.18030782 0
-0.18810774 0.15058212 0.44735545 -0.98213333 0.044933308 -0.18274371 0
-0.18355232 0.24921295 0.45127329 -0.98106521 0.058096047 -0.1847592 0
-0.17653197 0.35173845 0.4482823 -0.98021054 0.064374939 -0.18719789 0
-0.16957256 0.45332119 0.44893909 -0.97692323 0.09126997 -0.19310805 0
-0.15194035 0.55140787 0.45013455 -0.92790878 0.2867251 -0.23827304 0
-0.11803512 0.64822823 0.44854575 -0.94001985 0.26069653 -0.22000016 0
-0.098642953 0.69080675 0.40684256 -0.95582283 0.18592453 -0.22767259 0
-0.10524316 0.72396952 0.46776444 -0.96056622 0.20429312 -0.18861818 0
-0.094762601 0.73310381 0.43009603 -0.8198263 0.50501204 -0.26990306 0
-0.11686635 -0.7360844 0.55260789 -0.9502154 -0.27155977 -0.15279385 0
-0.09872812 -0.75960964 0.5051741 0.37514693 -0.92173988 -0.098287582 0
-0.14066152 -0.64862287 0.55055368 -0.91552997 -0.35042626 -0.1974998 0
-0.17456028 -0.55235744 0.5507943 -0.95976883 -0.20608717 -0.19071408 0
-0.18782301 -0.45035279 0.5483799 -0.98340321 -0.07019081 -0.16730617 0
-0.20210978 -0.33343935 0.5850423 -0.98432589 -0.063396536 -0.16457076 0
-0.19299227 -0.3525658 0.53914505 -0.98316431 -0.064678289 -0.17089358 0
-0.204676 -0.2456044 0.56910032 -0.98475218 -0.054887723 -0.16507705 0
-0.19618224 -0.25711402 0.52328187 -0.98339373 -0.057215698 -0.17222983 0
-0.20712015 -0.14843494 0.55513185 -0.98563588 -0.041193038 -0.16378303 0
-0.19822896 -0.17065333 0.50832695 -0.98392236 -0.04763487 -0.17212716 0
-0.20927505 -0.048777252 0.55125093 -0.98676789 -0.013348055 -0.16158871 0
-0.20933074 0.049003139 0.55155295 -0.98677641 0.013281227 -0.16154206 0
-0.20722891 0.14795303 0.55569947 -0.98566431 0.041156724 -0.16362123 0
-0.1985168 0.1638636 0.50829744 -0.98405737 0.045652527 -0.17189229 0
-0.20502231 0.24786302 0.5719018 -0.98482364 0.054758195 -0.16469355 0
-0.19603683 0.25737122 0.52251792 -0.9834795 0.057188258 -0.1717485 0
-0.20228986 0.33459228 0.58655512 -0.98438078 0.063167728 -0.16432972 0
-0.19288872 0.3546629 0.53935421 -0.98314619 0.064982593 -0.17088243 0
-0.18820171 0.45214498 0.55133426 -0.98350179 0.070556611 -0.1665715 0
-0.1746297 0.55113494 0.54991955 -0.95844084 0.21105155 -0.19195971 0
-0.14040856 0.64953077 0.5503903 -0.91617185 0.34916881 -0.19674906 0
-0.11674771 0.73545706 0.55188334 -0.94548643 0.28641379 -0.15499204 0
-0.098848581 0.75978369 0.50634253 0.37515402 0.92173684 -0.098288491 0
-0.13031153 -0.74076867 0.65222245 -0.94255161 -0.3020342 -0.14272983 0
-0.16162695 -0.6497705 0.6502437 -0.9049499 -0.38083145 -0.18982372 0
-0.20275034 -0.52890211 0.68244123 -0.98376793 -0.10662497 -0.14433199 0
-0.19094186 -0.55739689 0.64322889 -0.96711528 -0.188666 -0.1705672 0
-0.20612043 -0.44729421 0.66100335 -0.98631614 -0.074422471 -0.14711127 0
-0.19776788 -0.46707228 0.61593133 -0.98494464 -0.07444974 -0.15601702 0
-0.21124341 -0.34838131 0.64884073 -0.98637092 -0.064518131 -0.15135981 0
-0.21732059 -0.24967465 0.65017092 -0.9872725 -0.052844729 -0.15000208 0
-0.22171633 -0.15178068 0.64913189 -0.98850238 -0.037636764 -0.14644663 0
-0.22435775 -0.050992459 0.64965528 -0.98982871 -0.011505964 -0.14179778 0
-0.22448307 0.048894744 0.65040207 -0.9898349 0.011300631 -0.14177178 0
-0.22228572 0.14947858 0.65235639 -0.98861569 0.036941405 -0.14585727 0
-0.21755013 0.24817279 0.65108007 -0.98734003 0.052643396 -0.14962763 0
-0.21168311 0.34869376 0.65183586 -0.9864549 0.064607672 -0.15077344 0
-0.20596486 0.44576514 0.65919697 -0.98630065 0.074264094 -0.14729552 0
-0.19742925 0.47277907 0.61656594 -0.98506272 0.074809179 -0.15509753 0
-0.2028407 0.52340329 0.67958152 -0.98513818 0.094842069 -0.14320537 0
-0.1911405 0.55643976 0.64335203 -0.96701765 0.18870664 -0.17107522 0
-0.16142306 0.64975983 0.64931113 -0.9024207 0.38621038 -0.1909931 0
-0.13008651 0.74107438 0.65170515 -0.93527865 0.32316858 -0.14427689 0
-0.14248668 -0.74601442 0.74991113 -0.93771297 -0.32290927 -0.12815635 0
-0.20266713 -0.60919607 0.78321707 -0.96211636 -0.23118448 -0.14451922 0
-0.1801337 -0.65423959 0.75159901 -0.89878601 -0.40404579 -0.17009027 0
-0.20978646 -0.54834998 0.75350791 -0.98031598 -0.14041211 -0.1387984 0
-0.19694142 -0.58887196 0.7157777 -0.96178108 -0.22378109 -0.15779485 0
-0.21847272 -0.45175526 0.74975622 -0.98721325 -0.079863377 -0.13795562 0
-0.22590958 -0.35097593 0.74921215 -0.98740286 -0.066722035 -0.14347012 0
-0.23211363 -0.250999 0.75081515 -0.9882341 -0.051523753 -0.14400886 0
-0.23604064 -0.15091194 0.74819386 -0.98951191 -0.032401748 -0.1407703 0
-0.2383088 -0.050754789 0.74940437 -0.99049944 -0.0095832776 -0.13718201 0
-0.23850332 0.048513446 0.75067592 -0.9905085 0.0092922617 -0.137137 0
-0.23612311 0.14902754 0.74833298 -0.98952639 0.032182768 -0.1407191 0
-0.23187459 0.25138652 0.74937367 -0.98823184 0.051529557 -0.14402266 0
-0.22576064 0.3500815 0.74780768 -0.98742718 0.066512868 -0.14339989 0
-0.21863909 0.45167682 0.75094533 -0.98722541 0.079935834 -0.13782683 0
-0.21009956 0.54730469 0.75455093 -0.98114687 0.13565344 -0.13765503 0
-0.19720878 0.58656955 0.71417302 -0.96165591 0.22359295 -0.15882084 0
-0.20265059 0.61053199 0.78521138 -0.96205568 0.23134235 -0.14467065 0
-0.17898755 0.65480572 0.74665803 -0.8939904 0.41342297 -0.17280801 0
-0.1415555 0.74868184 0.74937588 -0.92492217 0.35781583 -0.1284012 0
-0.15553032 -0.74562472 0.8513999 -0.90964425 -0.39706045 -0.12202634 0
-0.20862374 -0.63032806 0.85895032 -0.95791757 -0.24940875 -0.14208876 0
-0.18674465 -0.67817324 0.84441227 -0.83508527 -0.52341479 -0.1693211 0
-0.22308482 -0.54944593 0.85232633 -0.9830249 -0.12555788 -0.1337804 0
-0.23306498 -0.44926417 0.85184866 -0.98597646 -0.088261239 -0.14163464 0
-0.24075694 -0.35083765 0.85115629 -0.98721021 -0.067673266 -0.14434783 0
-0.24643177 -0.24996689 0.8493259 -0.98868674 -0.048512366 -0.14193337 0
-0.25065649 -0.15160975 0.85197133 -0.98996431 -0.028355559 -0.13844329 0
-0.25244322 -0.050407596 0.85169029 -0.990587 -0.0080151195 -0.1366498 0
-0.25229609 0.049431801 0.85061926 -0.99058598 0.0079850545 -0.13665928 0
-0.25028154 0.1476761 0.84844398 -0.98998332 0.02767849 -0.13844518 0
-0.24645935 0.25242457 0.85041219 -0.98864424 0.049138993 -0.14201304 0
-0.24067239 0.34793082 0.84921169 -0.98724234 0.067126557 -0.14438285 0
-0.23237395 0.45008633 0.84758037 -0.98608774 0.088029563 -0.14100325 0
-0.22255719 0.55188978 0.85077482 -0.9824596 0.12942986 -0.13424243 0
-0.20817453 0.63213229 0.85910743 -0.95804995 0.24920672 -0.14154916 0
-0.18740557 0.67786777 0.84491456 -0.82111341 0.54407865 -0.17248529 0
-0.15427159 0.74910426 0.85038412 -0.91236067 0.39153406 -0.11957883 0
-0.20264962 -0.70246762 0.99129856 -0.6916908 -0.69800216 -0.18535563 0
-0.167622 -0.74899 0.94976413 -0.86167908 -0.49050274 -0.1300623 0
-0.21693705 -0.65018743 0.95210499 -0.94363767 -0.29686472 -0.14635332 0
-0.19419287 -0.69300586 0.92347836 -0.72133708 -0.66800678 -0.18286562 0
-0.23667306 -0.5494495 0.95204061 -0.98365742 -0.12031017 -0.13395318 0
-0.24713841 -0.45133662 0.95055991 -0.98560685 -0.092862718 -0.14126419 0
-0.2550841 -0.35028347 0.95043582 -0.98829424 -0.064569764 -0.1382215 0
-0.26037201 -0.25107619 0.94905376 -0.98967326 -0.046157949 -0.13570705 0
-0.26426551 -0.14988813 0.9500289 -0.99037921 -0.027189111 -0.13568278 0
-0.26614481 -0.049809054 0.95088971 -0.99054688 -0.0080896132 -0.1369354 0
-0.26613605 0.051159516 0.95090437 -0.99055171 0.0080904039 -0.13690118 0
-0.26421693 0.15208764 0.95017207 -0.99038339 0.027455153 -0.13559848 0
-0.2609289 0.25078666 0.95301807 -0.98968965 0.046093535 -0.13560845 0
-0.25497973 0.35096449 0.95002449 -0.98826826 0.064715117 -0.13833992 0
-0.24753657 0.45051146 0.95280391 -0.98568183 0.092392571 -0.14104989 0
-0.23620224 0.54985553 0.94895315 -0.98354626 0.121222 -0.13394786 0
-0.21721071 0.64820194 0.95030552 -0.94374806 0.29635173 -0.14668098 0
-0.1948224 0.6934675 0.9276213 -0.71847337 0.67094374 -0.18338595 0
-0.202787 0.70301902 0.99388367 -0.69174463 0.69800037 -0.18516138 0
-0.1682639 0.74760699 0.94968128 -0.86338609 0.4871549 -0.13131896 0
-0.20979542 -0.71200234 1.0577073 -0.76572305 -0.61932707 -0.17349999 0
-0.17788878 -0.75682718 1.0480807 -0.83099222 -0.5404588 -0.13174281 0
-0.23148522 -0.65042055 1.0503625 -0.95675677 -0.25456434 -0.14076084 0
-0.25025243 -0.54867285 1.0507882 -0.98193264 -0.13111584 -0.13644412 0
-0.26146689 -0.45023406 1.0514069 -0.98608685 -0.091227308 -0.13896112 0
-0.2688241 -0.35215861 1.0509545 -0.98869616 -0.062047165 -0.13649152 0
-0.27422863 -0.24921894 1.0495485 -0.98950189 -0.045718357 -0.13709775 0
-0.27841413 -0.14951956 1.0525779 -0.98969901 -0.029591383 -0.1400723 0
-0.28007048 -0.050962452 1.0506985 -0.98979259 -0.0088495947 -0.1422402 0
-0.27987894 0.050184514 1.0493255 -0.98984075 0.0088460818 -0.14190495 0
-0.27776465 0.15262033 1.0485594 -0.98978513 0.029952183 -0.13938472 0
-0.27424088 0.25069577 1.0501766 -0.98948652 0.046111554 -0.13707741 0
-0.26881856 0.35087746 1.0502468 -0.9886815 0.06201322 -0.13661365 0
-0.26115808 0.44939673 1.0486637 -0.98626226 0.090009749 -0.13851024 0
-0.25021699 0.54963022 1.0514288 -0.98185182 0.13176353 -0.13640162 0
-0.23237994 0.64795834 1.0511442 -0.95797336 0.25001901 -0.14063258 0
-0.2101678 0.71142286 1.0567337 -0.76914185 0.61520714 -0.17303449 0
-0.17670123 0.75860584 1.046522 -0.82684165 0.54733396 -0.1294544 0
-0.21857789 -0.72581303 1.1543996 -0.82913947 -0.53441823 -0.16408765 0
-0.18663684 -0.76615334 1.1383535 -0.73056954 -0.67834353 -0.078219473 0
-0.24682747 -0.64893508 1.1511539 -0.96014518 -0.23811682 -0.14636165 0
-0.2643159 -0.54891223 1.1507396 -0.98491824 -0.12943788 -0.1148124 0
-0.27209577 -0.4507142 1.1528203 -0.9927125 -0.015033799 0.11956492 0
-0.27511513 -0.35144374 1.1428865 -0.96343464 0.021829803 0.26705283 0
-0.27568167 -0.2509259 1.1346909 -0.91859919 0.040211257 0.39313942 0
-0.27572098 -0.15341547 1.1272647 -0.87510115 0.03928367 0.48234302 0
-0.27447692 -0.049168754 1.1240077 -0.82775396 0.016137315 0.56085914 0
-0.2749773 0.051184755 1.1230664 -0.83505911 -0.016271723 0.54991955 0
-0.27620676 0.15004033 1.1262881 -0.85946691 -0.041507259 0.50950354 0
-0.27632868 0.25225326 1.1329896 -0.94006175 -0.030399716 0.33964649 0
-0.27544418 0.35212699 1.1400807 -0.97254634 -0.014478493 0.23225875 0
-0.27234694 0.45277292 1.1508393 -0.99529123 0.022531655 0.094274856 0
-0.26468641 0.54830009 1.1517601 -0.98273885 0.13329498 -0.12828408 0
-0.24647748 0.65080458 1.151468 -0.95920354 0.24154747 -0.14691252 0
-0.21826167 0.72680742 1.1564199 -0.82764524 0.53656334 -0.16463065 0
-0.18722709 0.76436478 1.1350195 -0.76530802 0.63567626 -0.10109089 0
-0.23398042 -0.72797966 1.2445093 -0.81876272 -0.56213844 -0.11673909 0
-0.19776912 -0.76319027 1.20407 0.27896842 -0.88445854 0.37404531 0
-0.25828081 -0.6549722 1.2413628 -0.98941505 -0.14296821 -0.024857752 0
-0.26693955 -0.55655426 1.2145969 -0.88800812 0.14098905 0.43767986 0
-0.25854963 -0.48903817 1.2025045 -0.86206502 0.14008079 0.4870536 0
-0.25820747 0.48837566 1.2028259 -0.86261332 -0.13767026 0.48677027 0
-0.26616117 0.55676717 1.215385 -0.8849498 -0.14502168 0.44252962 0
-0.25855619 0.65565014 1.2445978 -0.99306047 0.11610223 0.018738247 0
-0.23312303 0.72886872 1.2421163 -0.81488794 0.56867105 -0.11211956 0
-0.19899578 0.7620368 1.2071915 0.19558346 0.91537654 0.351899 0
-0.25311995 -0.71270299 1.3089637 -0.58266813 -0.54625607 0.60174924 0
-0.25398615 -0.69654024 1.3036785 -0.2616846 0.54447448 0.79691201 0
-0.25317374 0.69484657 1.3028507 -0.15444434 -0.56099248 0.81328624 0
-0.25397402 0.71182865 1.3070173 -0.78306025 0.51273847 0.35201699 0
